ply
format ascii 1.0
comment Created by Open3D
element vertex 1608
property double x
property double y
property double z
end_header
0.0368224 -0.0148485 0.362431
0.0318112 0.017244 0.364167
-0.00876502 0.013215 0.364908
-0.00224024 0.00574002 0.364375
0.0369106 -0.00638375 0.362837
0.0431674 0.0383993 0.364965
-0.0811688 -0.0443248 0.363667
-0.0097111 0.0137834 0.364944
0.0410911 0.0165982 0.363894
0.0458951 -0.0213052 0.361855
-0.0811717 -0.0437235 0.36368
0.0415223 0.021675 0.364133
0.0379212 -0.00852478 0.36268
-0.00223982 0.00507845 0.364308
0.0415976 0.034942 0.364793
0.0215895 -0.0291763 0.362001
0.0232612 0.0244947 0.36469
-0.0210601 0.0113292 0.365054
0.0441095 0.0375 0.36486
0.039222 0.0142424 0.363792
0.0357827 0.0410384 0.365232
0.0402633 0.0156263 0.363836
0.0422085 -0.0254716 0.3617
0.041033 0.0353216 0.364812
0.0397893 0.0150598 0.363809
0.0355928 0.0410376 0.365225
-0.0227081 0.00667878 0.364837
-0.00242648 -0.000393943 0.364
0.0422051 -0.0263679 0.361633
0.0388405 0.0137383 0.363748
0.0363723 0.00892885 0.363562
0.00117426 -0.0023349 0.36381
0.0462158 -0.0221288 0.361746
0.0432213 0.0185499 0.36388
0.0221259 -0.0365401 0.361573
0.0238166 0.0222644 0.364517
0.0466037 0.0234613 0.364043
0.0385865 0.0368435 0.36491
0.0233456 0.02869 0.36483
0.000872804 -0.00133615 0.363823
-0.00715416 0.0122629 0.364702
0.000276114 0.000580248 0.363928
0.000590824 0.00715319 0.36425
0.0168027 -0.0316983 0.361893
0.00181777 0.00979745 0.36435
0.0250377 -0.0316813 0.361698
0.0454325 -0.0192999 0.36185
0.0422886 -0.0213831 0.361814
0.0361422 -0.00424563 0.362828
0.0404598 0.0356944 0.364757
-0.0147149 -0.00714164 0.363863
0.0230444 -0.0305641 0.361781
0.0222348 -0.0300521 0.361821
0.0442676 0.0196074 0.36383
0.000380705 -0.000435754 0.363835
-0.0226443 0.00565043 0.364681
-0.0130713 -0.00811938 0.363758
0.0421722 0.0391065 0.36486
0.0436722 0.037962 0.36476
-0.0164704 -0.00604934 0.36392
0.0305506 0.0124196 0.363759
0.0387007 -0.00977968 0.362439
-0.00526239 0.0111239 0.364523
0.041982 0.0392944 0.36485
-0.0181214 0.0126476 0.3649
0.0359203 -0.00377552 0.362801
0.0364754 -0.00518381 0.362716
0.0437427 0.0190156 0.363775
0.0422756 -0.0223133 0.361702
0.0255775 0.0427602 0.365395
-0.0267685 -0.00379057 0.364248
0.0422289 0.0175996 0.363721
-0.0227418 0.00763492 0.364729
-0.022755 0.00863311 0.364772
0.047006 0.0244918 0.363946
0.0234001 0.0295666 0.364753
0.0258751 0.0209275 0.364254
-0.0140125 -0.00755367 0.363736
0.0448938 0.0206746 0.363788
0.0427917 0.0180696 0.363699
0.0234592 0.0316385 0.364832
0.0457899 -0.0205176 0.361658
0.0448769 0.0364313 0.364569
0.0472996 0.0255294 0.363957
0.0462936 0.0225993 0.36383
0.0386292 0.0132594 0.363533
-0.00247868 -0.00141657 0.363745
0.0249323 0.0214942 0.364264
0.0421506 -0.0183385 0.361836
0.045083 -0.0184025 0.361761
-0.00275424 -0.00208927 0.363701
0.0234533 0.0305914 0.36474
0.0343254 0.0412422 0.365027
0.0445571 -0.0171476 0.361818
0.0437709 0.0256275 0.364009
0.0368732 0.0378709 0.364792
0.0412329 -0.0175436 0.361869
-0.0157093 -0.00647058 0.363756
0.0423361 -0.02047 0.361686
0.021775 -0.0243922 0.361967
-0.0022373 0.0026222 0.363898
0.0415657 -0.0295821 0.361232
0.0234584 0.0326767 0.364818
0.0475865 0.0274645 0.363989
-0.0196457 -0.00403897 0.363957
0.040516 -0.0170756 0.361884
0.0432686 -0.0152647 0.361911
0.000590455 0.00667732 0.364022
0.0436976 -0.0157615 0.36184
0.0448064 -0.0177234 0.361712
-0.00220586 0.00353326 0.363887
0.0241059 0.035481 0.364894
0.00266575 0.0113016 0.364165
-0.0176898 -0.00523072 0.363799
0.0423659 -0.0194076 0.361673
0.0437554 0.0246759 0.36388
0.0234396 0.0345279 0.364853
0.043405 0.0227475 0.363787
0.0217676 -0.0254148 0.361844
0.0427552 -0.0321817 0.361006
0.0311202 0.0176981 0.363809
-0.0214476 -0.0103763 0.363608
-0.0189173 -0.00444617 0.363849
0.0389292 0.0366213 0.364579
0.00265931 -0.00547424 0.363286
0.004553 0.0141339 0.364232
0.0217628 -0.0264398 0.361764
0.0441079 -0.0163665 0.361747
0.0217841 -0.0294875 0.3616
0.0450821 0.021344 0.363635
0.00171885 -0.00349927 0.363386
-0.0169947 -0.00566907 0.36371
0.0233368 0.0336875 0.364766
0.0204249 -0.0357641 0.361302
-0.00223633 0.00177319 0.363739
-0.00337087 0.00998136 0.364173
0.0301776 0.0182633 0.363804
0.0353672 0.0413735 0.364851
0.039198 -0.0162297 0.361829
0.0477279 0.0302454 0.363988
0.0058694 0.0105412 0.363963
0.0333611 0.0404252 0.364821
0.0397532 -0.0166017 0.361766
0.0438158 0.0265593 0.363861
0.0414282 -0.0337564 0.360848
0.0421772 -0.0331033 0.36086
0.0423827 -0.0141674 0.361816
-0.0151348 -0.00679621 0.363536
0.030712 0.0124087 0.363439
0.0291288 0.0159009 0.363651
0.00140713 0.00849779 0.363922
0.0475366 0.0306207 0.363966
0.0297767 0.013541 0.363513
0.0477526 0.0278283 0.363817
0.0217538 -0.0273656 0.361615
0.0444482 -0.030231 0.360935
0.0369549 -0.0148264 0.36189
-0.0206307 -0.00337151 0.363818
0.0428446 -0.0146337 0.361761
0.0410029 -0.0342199 0.360807
0.0218457 -0.0233106 0.361809
0.0478501 0.0286549 0.363842
0.0467743 0.0236782 0.36361
-0.00207988 0.00557433 0.363832
-0.00213388 0.00455716 0.36378
-0.00204863 0.00658026 0.363868
0.0419133 -0.0136048 0.361809
0.0414482 -0.0131843 0.361839
0.0438759 0.0273745 0.363838
0.0380688 -0.0155093 0.361788
0.043964 0.0316647 0.364047
0.00907018 0.0105362 0.363788
0.0271514 -0.0329431 0.361153
0.0297797 0.038334 0.364703
0.00359752 -0.00697444 0.363011
0.0439541 0.0306206 0.363964
0.0474619 0.0267348 0.363684
0.0437232 0.0236219 0.363612
-0.00469038 0.0108279 0.364091
0.0238179 0.0328402 0.364536
-0.021499 0.0109338 0.364481
0.000985743 0.00765292 0.363787
0.0238252 0.035117 0.364648
-0.00695565 0.012246 0.364199
0.000777587 -0.000769715 0.363351
0.0103469 -0.0169078 0.362305
-0.0228639 -0.00120166 0.363879
0.047826 0.0293801 0.363778
-0.0225492 0.001761 0.364017
0.0466005 0.033642 0.364018
0.045961 0.02201 0.363434
0.040231 -0.0117319 0.36185
0.0418013 0.0171078 0.363279
0.0217433 -0.0282885 0.36144
0.0234997 0.0227982 0.363995
0.0219578 -0.0193254 0.361889
0.0295039 -0.0342951 0.360943
0.0219542 -0.0202594 0.361831
0.0361958 -0.0143228 0.361798
-0.00198556 0.00768892 0.363809
0.0349836 -0.0136067 0.361861
0.0234171 0.0267711 0.364177
0.0372189 -0.0150069 0.361723
0.0227128 -0.0167984 0.361971
0.0452964 -0.0285033 0.36084
0.0409225 -0.0125719 0.361749
0.0243252 -0.0377762 0.360856
0.0354472 -0.0138859 0.361809
-0.0228351 -0.000447639 0.36385
0.0295732 0.0133459 0.363326
0.0439544 0.0326004 0.363967
0.0310509 -0.0352174 0.360814
-0.00223425 0.000610681 0.363402
0.0433954 0.0338312 0.364023
-0.00261415 0.00953311 0.363863
0.0241512 0.0220362 0.363868
0.039109 -0.0102331 0.361874
0.0376325 0.0112655 0.363001
0.0467748 0.033349 0.363907
0.045729 -0.0270282 0.360862
0.0421555 -0.0283611 0.360875
-0.0267804 0.00951595 0.36441
0.0450008 -0.0291081 0.360768
0.0305828 -0.0349672 0.360804
0.0418556 -0.0292872 0.360827
0.00187113 0.00951697 0.363732
-0.0228089 0.00922982 0.364293
0.00417148 0.0134839 0.363876
-0.0213021 0.0109297 0.364342
0.0456308 -0.0274926 0.360823
0.00345489 0.01246 0.363837
0.0023696 0.0105564 0.363764
0.0425053 -0.0325965 0.36063
0.0238673 0.0223179 0.36385
0.0422856 -0.0252611 0.360987
0.0438335 -0.0312154 0.360645
0.0384918 -0.00923993 0.361887
-0.022454 0.00238645 0.363892
0.0474118 0.0315432 0.363733
-0.022549 -0.00221452 0.363651
0.00299258 0.0117133 0.36376
-0.00200597 0.00862897 0.363713
0.0373075 0.0106354 0.362889
0.0325273 0.00449223 0.362687
0.0364851 0.00881641 0.362811
0.0215227 -0.0360027 0.360881
0.0222337 -0.0174468 0.361805
-0.0199342 -0.00371992 0.363488
0.0439202 0.0295608 0.363684
0.0405513 -0.0121311 0.361642
0.0233996 0.0245519 0.363904
0.00755587 0.00864399 0.363464
0.00447082 -0.00837683 0.362669
-0.00846173 0.0131843 0.364062
0.0478307 0.0248272 0.363336
0.0220425 -0.0183806 0.361742
0.0187279 -0.0333088 0.361061
0.00497228 0.0153915 0.363856
0.043913 0.0288025 0.363624
0.0368868 0.00959464 0.362802
0.0345923 -0.0133193 0.361689
-0.022617 0.000611302 0.363735
0.00504223 0.014659 0.363801
-0.0146488 -0.00697734 0.363161
0.0382668 0.0125247 0.362903
0.00327281 -0.00637899 0.362761
0.00394327 -0.00737102 0.362694
-0.022485 0.00897442 0.36414
0.0460922 -0.0254335 0.360778
-0.00940464 0.0137501 0.364061
0.0233925 0.0237278 0.363794
0.0269407 -0.032634 0.360838
0.00289036 -0.00570135 0.362766
0.0362493 0.0382831 0.364218
-0.0207266 0.011302 0.364178
0.0234668 0.0276359 0.363974
-0.012762 -0.0081025 0.363001
0.0424898 -0.0193786 0.361134
0.0399759 0.0150237 0.362938
0.0376986 -0.00770151 0.361831
0.0458933 -0.0264543 0.360683
0.046285 -0.0234741 0.360824
-0.00383759 0.0103456 0.363715
-0.0176628 -0.00509729 0.363245
0.0406348 -0.0170468 0.361273
0.0412274 0.0165019 0.36296
0.00218589 -0.00433934 0.362804
0.0091665 -0.00458772 0.362628
0.000541839 -0.000157911 0.363052
0.000777664 0.00669701 0.363387
0.0269489 0.0203175 0.363468
-0.0224086 0.00658113 0.363922
0.0298325 0.0134296 0.363046
0.0389311 0.0135785 0.362837
0.0455923 0.0355627 0.363797
0.0440455 0.0376882 0.36394
0.00144799 -0.00235333 0.362899
0.0471859 0.0246926 0.363202
0.00171921 0.00892639 0.363462
0.0423367 -0.0242453 0.360826
0.0261532 -0.0321263 0.360804
0.0449298 0.0364538 0.36385
-0.0224047 0.00563768 0.363858
-0.0224023 0.00488318 0.363819
0.00830623 0.00977042 0.363344
-0.00223522 0.00921126 0.36356
0.042315 -0.0263938 0.360707
0.0378565 0.0116648 0.362746
0.0460134 -0.0210482 0.360892
0.0244517 -0.0311115 0.360885
0.0253336 0.0426681 0.364608
0.0379993 -0.00832371 0.36172
0.0235999 0.0316682 0.364087
0.0403912 0.0155378 0.362868
0.0374744 -0.00726313 0.361778
0.0423384 -0.0272919 0.360641
0.0280116 -0.0332725 0.360667
0.00379146 0.0128843 0.363576
-0.0261808 0.00639312 0.363947
0.0423599 -0.0233806 0.360825
-0.0136999 -0.00753708 0.362938
0.0435712 0.0380627 0.363916
-0.0221872 -0.00265215 0.363382
0.0463966 -0.0243796 0.360674
0.0438244 0.0334215 0.36367
0.0423539 0.0390127 0.363985
0.0360248 -0.00367312 0.361963
0.0250693 -0.0314537 0.360807
0.0371055 -0.00641557 0.361792
0.00662087 0.0193946 0.363816
0.0235936 0.0306227 0.363989
0.0445955 0.0369213 0.363814
0.0235994 0.0326104 0.364078
0.0387949 -0.00966253 0.361567
0.0225839 -0.0299921 0.360911
0.0288818 -0.0338237 0.360568
0.0457302 -0.0198319 0.360871
0.0465526 -0.022253 0.360725
-0.00590955 0.0116631 0.363673
0.00115228 -0.00137942 0.362831
0.0438208 0.0188738 0.362862
0.000508061 0.000412978 0.362936
0.0368314 -0.00556403 0.361782
0.0185272 -0.0332841 0.360794
0.0365712 -0.00498338 0.361803
0.0370804 -0.0148016 0.361286
0.0305978 0.012701 0.36283
0.0443206 0.0194058 0.362849
0.047817 0.0285833 0.363232
0.00180942 -0.00321067 0.362687
0.0432884 0.0183638 0.36281
-0.0260566 0.000642091 0.36353
0.0455691 -0.0192377 0.360829
0.0421524 0.0391893 0.363874
0.0235822 0.0295714 0.363814
0.0451085 0.0206858 0.362851
0.0232442 -0.0303845 0.36076
-0.00223075 -0.00133233 0.362833
0.0235971 0.0343989 0.364044
0.0394744 0.0142603 0.362648
0.0429624 0.0180227 0.362755
-0.00214752 -0.000434442 0.362867
0.0458981 -0.0203842 0.360721
0.0424506 -0.0203887 0.3608
-0.0157185 -0.00621997 0.362879
0.031051 0.0178468 0.363
-0.00241831 -0.00198992 0.362774
0.0363772 -0.00442029 0.361738
0.042405 -0.0224993 0.360678
0.044836 -0.0174553 0.360874
-0.0193464 -0.00396627 0.363059
0.0239022 0.0325948 0.363904
0.0256518 0.0307922 0.363764
-0.00198125 0.00349358 0.36302
-0.00185679 0.00738373 0.363213
0.0422966 0.0174556 0.362685
0.0218998 -0.0263324 0.360934
-0.0223936 0.0073303 0.363677
0.0397756 0.0361545 0.363684
-0.0184014 -0.00452933 0.362967
0.0293493 0.0158987 0.362885
0.0434486 0.0226352 0.36289
0.0458792 0.0218455 0.362787
0.0192764 -0.0289879 0.360823
0.0220212 -0.0294347 0.360735
0.0468735 0.0235721 0.362847
-0.0151026 -0.00659384 0.362762
0.0424345 -0.0214085 0.360663
0.0432606 0.0384151 0.363683
0.0393572 -0.0161612 0.360999
0.0219872 -0.0273998 0.360832
-0.0224915 0.00930992 0.363737
0.0478011 0.0294515 0.363111
0.042327 -0.0183333 0.36081
0.0447871 0.0199456 0.362695
0.0457748 0.035441 0.363451
0.0472609 0.0331049 0.363296
0.0452445 -0.018329 0.360724
0.0438827 0.0256024 0.362984
-0.0202839 -0.00340159 0.363008
0.0442711 -0.0163589 0.36084
0.0464636 0.0226037 0.362765
0.04386 0.0246425 0.362926
0.0219497 -0.0285449 0.360733
0.0219355 -0.0251433 0.360906
0.0428436 -0.0144144 0.360962
0.0477846 0.0276864 0.362986
0.0235681 0.028612 0.363596
0.00152928 0.00825845 0.363069
0.0458613 0.0349959 0.36339
-0.00208944 0.00059375 0.36276
0.0421974 -0.0285673 0.360234
0.0453993 0.0215902 0.362708
0.0242786 0.0352958 0.363893
0.0438186 0.0236659 0.362843
0.000851127 -0.000505248 0.362617
0.0475849 0.0264891 0.362897
0.0219679 -0.0244137 0.360902
0.0188524 -0.0286088 0.360758
-0.00198889 0.00172824 0.362784
0.00810913 0.00957174 0.362946
0.0425682 0.0344321 0.3634
-0.0223672 0.0015826 0.363248
0.0440524 0.0315928 0.36322
-0.00194885 0.00261446 0.362819
0.0438541 -0.0157169 0.360816
-0.0168871 -0.00546625 0.362752
0.0425583 -0.0141323 0.360921
0.0446007 -0.0301382 0.360052
0.0440442 0.0306463 0.363152
0.0402733 -0.0167143 0.360829
0.00171438 -0.00273918 0.36244
0.0413253 -0.0173967 0.360767
0.0474606 0.0257685 0.36281
-0.0220014 0.00619566 0.363423
0.0440206 0.0276216 0.362958
0.00452596 -0.00798795 0.362068
0.0411305 -0.0341321 0.359881
-0.0223509 -0.00217922 0.362984
-0.00825881 0.0131615 0.363431
-0.001855 0.00496432 0.362862
0.0319127 0.00598568 0.362109
0.0335705 0.0403134 0.363812
0.0220888 -0.0207721 0.360968
0.042247 -0.033105 0.359863
0.0352448 -0.0136062 0.361014
0.0425275 -0.0327328 0.35987
0.0440433 0.0326397 0.363145
0.0238903 0.0348082 0.363723
0.0427126 -0.0323589 0.359858
0.0220247 -0.0234588 0.360794
-0.0216797 0.0107177 0.363552
-0.00178466 0.00656229 0.362876
0.0299838 0.0382327 0.36374
-0.0204608 -0.00321179 0.362811
0.0235723 0.0337974 0.36366
-0.00180115 0.00559471 0.362818
0.00735323 0.00862714 0.362756
0.00679973 0.0193673 0.363303
0.00126976 0.00764221 0.362835
0.0403478 -0.0116712 0.360939
0.0414929 -0.0337506 0.359789
0.0459633 -0.02712 0.360012
0.0371208 0.0377698 0.363516
0.0261488 -0.0319257 0.360228
0.0420223 -0.0135265 0.360792
0.0466639 -0.0240826 0.360141
0.0240013 0.0223145 0.363028
0.0356351 0.0414344 0.363726
0.0412084 -0.0126648 0.360834
0.0474041 0.0319455 0.362952
-0.022352 0.000829384 0.363001
0.00209225 0.0094755 0.362862
0.0440131 0.0296848 0.362896
0.0308071 0.0127467 0.362342
0.0405877 -0.0119801 0.360855
0.0433643 -0.0150549 0.360627
-0.00241947 0.00957176 0.362948
0.0450123 -0.0292836 0.359863
0.0289408 0.0148168 0.362477
-0.0221514 -0.00236604 0.362797
0.0235359 0.024623 0.363099
0.0439466 -0.0311411 0.359787
0.0312812 -0.0351262 0.359879
0.0423619 -0.0266874 0.360046
0.00359675 0.0122975 0.362933
0.0364088 -0.0142839 0.360813
-0.0225322 -0.000486688 0.362875
0.0283786 0.0153807 0.362491
0.00176291 0.00858056 0.362767
0.0221659 -0.0193332 0.36087
0.0163169 0.0316255 0.363597
0.0420094 -0.029175 0.359903
-0.003924 0.010513 0.362989
0.0392491 -0.0101875 0.360922
0.0300716 -0.0343829 0.359904
0.0439996 0.0287361 0.362785
0.0437762 0.0228917 0.362491
0.00471013 -0.00849763 0.361808
0.000963916 0.00671498 0.362668
0.00447407 0.0135194 0.36293
-0.0224902 -0.00133241 0.362804
0.0477582 0.0307092 0.362785
0.0113137 0.0225612 0.363215
0.0330789 0.0399118 0.363587
0.0462668 -0.0253756 0.359956
0.0415035 -0.0130023 0.360692
0.0132977 -0.0218894 0.360891
0.0223958 -0.0174028 0.360893
0.00524152 0.0145528 0.362913
0.0453121 -0.0287175 0.359777
0.0424084 -0.024496 0.360046
0.0477252 0.0269322 0.362535
0.00914525 -0.00551398 0.361786
-0.00185456 0.00890942 0.362776
0.0235254 0.0237659 0.362937
0.0288274 -0.0335736 0.35989
0.0300489 0.0134941 0.362253
-0.0221582 0.00261505 0.362907
-0.0186065 0.0120276 0.363301
0.0034454 -0.00624928 0.361851
0.0425264 -0.0274192 0.35986
0.00326624 0.0117281 0.362764
0.0369506 0.00935532 0.361849
0.0438881 0.0334447 0.362899
-0.0212067 -0.000110664 0.362711
0.0239263 -0.0231715 0.360479
0.0402999 0.0402583 0.363315
-0.00210492 0.00931554 0.362733
0.00311716 -0.00563974 0.361831
0.0385904 -0.00911306 0.360824
0.0243578 0.0219677 0.362736
0.0229699 -0.0300509 0.360123
0.00420917 -0.00735548 0.361711
0.0365673 0.00860368 0.361765
0.00293655 0.0110675 0.362675
0.0388052 -0.00945487 0.360792
0.00152493 -0.00198598 0.362036
0.0376044 -0.00721489 0.360926
0.0239915 -0.0306048 0.360054
-0.0221677 0.00741198 0.363063
0.0424054 -0.0253085 0.359889
-0.0223633 0.00976617 0.363185
0.0222304 -0.0278207 0.360232
0.0282626 -0.0331941 0.359817
-0.0221623 0.00581197 0.362975
0.0458446 0.0353702 0.362886
0.0367534 0.00897804 0.361751
-0.0220705 0.00684678 0.363011
0.0460042 -0.0264771 0.359725
0.00534938 0.0152683 0.362795
0.0309713 0.0128308 0.362068
0.0375082 0.0106661 0.361803
0.0447263 -0.0300042 0.359563
0.031093 0.041031 0.363491
0.00127485 -0.00114197 0.362041
0.00378201 0.0124764 0.36267
0.0473139 0.0247538 0.362261
0.0470265 0.0238125 0.362216
0.0475042 0.0255058 0.362281
0.0395793 0.0142304 0.36189
0.0400501 0.0148873 0.361909
0.0414508 -0.0173709 0.360233
0.0252859 -0.0313372 0.359898
0.0468062 0.0336133 0.362691
0.041083 0.0161066 0.361924
0.027172 -0.0325068 0.359775
0.0246343 -0.0309654 0.359911
0.0462071 0.03462 0.36274
0.023717 0.0293166 0.362993
0.03794 0.0114766 0.36175
0.0465244 0.0339892 0.362691
0.0222525 -0.0185088 0.36059
0.041938 0.034817 0.362834
0.039197 0.0365229 0.362977
-0.0256476 -0.000141918 0.362627
0.040451 0.015354 0.361861
0.0382345 -0.00842477 0.360698
0.0230018 -0.0167361 0.360625
0.0238961 -0.0280845 0.360025
-0.00199125 -0.00128232 0.36199
0.0239166 -0.0218556 0.360333
0.00242297 -0.00425151 0.361725
-0.0018512 0.00154649 0.362119
0.00199237 -0.00310901 0.361791
0.0391915 0.0136635 0.36177
0.0235622 0.0266684 0.362781
0.0379533 -0.00786404 0.360689
0.0236116 0.0275175 0.36282
0.0467228 0.0229573 0.362044
0.0365714 -0.00459672 0.36088
0.043236 0.0339887 0.362686
0.0130983 -0.0218685 0.360547
0.044961 0.0365572 0.362772
0.0457469 -0.0194522 0.359899
0.0425283 -0.0213804 0.359876
0.0278016 0.0198775 0.362312
0.0423857 0.0173682 0.361842
-0.0021626 -0.00195395 0.361902
0.0429415 -0.0143845 0.360215
0.0444536 -0.0164305 0.360069
-0.0258006 0.000734504 0.362578
-0.0259964 0.00298923 0.362689
0.0454922 0.0214514 0.361951
0.047676 0.026623 0.362161
0.0237056 0.0286447 0.362818
0.0412528 0.0162871 0.361769
0.0368412 -0.00524951 0.360777
0.0372083 -0.00625764 0.360713
0.0465232 0.0224825 0.361949
0.0235066 0.0257195 0.362647
-0.0220355 0.000640427 0.362436
0.0425136 -0.0223794 0.359752
0.0323408 0.0104743 0.361653
0.0452524 0.0206022 0.361855
0.0401746 0.0359367 0.362752
0.0448197 0.0197568 0.36182
0.0426354 -0.0325797 0.359208
-0.0218433 0.0103375 0.36288
0.0441796 0.0375997 0.362722
0.0220839 -0.0284763 0.35987
0.000774337 0.000358143 0.361833
-0.0221227 0.00963155 0.362839
0.0440622 0.01891 0.361756
0.0424371 0.0390126 0.362816
0.0449162 -0.0172798 0.359891
0.00376863 -0.00656885 0.361387
0.0384167 0.0123436 0.361533
0.0239046 -0.0214715 0.360152
0.0424969 -0.0233951 0.35961
0.0430288 0.0341611 0.362522
0.0222023 -0.0292766 0.359777
-0.0142599 0.0142678 0.362839
0.000992733 -0.000329126 0.361737
0.0262853 -0.0318649 0.359542
0.0439511 0.0235269 0.361944
0.00937691 -0.00918204 0.361086
0.0452451 -0.0288611 0.359245
0.0220732 -0.0256081 0.359951
0.0467727 -0.0221802 0.359544
0.0431148 0.0179687 0.361668
0.043425 0.0383107 0.362695
0.00790182 0.0095484 0.362062
0.0222186 -0.0236096 0.36004
0.0236922 0.0276893 0.362612
-0.0177864 -0.00470388 0.361931
0.029263 0.0147691 0.361818
0.0237114 0.0336333 0.362906
0.0464043 -0.0213129 0.359575
0.0446161 0.0194686 0.361689
0.0377947 0.0373774 0.362754
0.0460381 -0.0203223 0.359625
0.0361784 -0.00356671 0.360691
-0.0168448 -0.00526502 0.36184
0.0421132 0.0392533 0.362724
0.0460274 0.0217199 0.361737
-0.00259812 -0.00245213 0.361645
0.0415389 0.0212558 0.361813
0.00452849 0.0133071 0.362271
0.0329813 0.0110313 0.361486
0.0424043 -0.018206 0.359775
0.0415244 0.0350984 0.362505
0.0479002 0.0275462 0.361966
0.0439206 -0.0312648 0.359066
0.0453629 -0.0182761 0.359688
0.0420524 -0.0177225 0.359792
0.0228449 -0.029823 0.359624
0.0397526 0.020222 0.36176
-0.0259884 0.00646309 0.362577
0.0418609 -0.0334858 0.358949
0.0192796 -0.028651 0.359722
0.0431238 0.022095 0.361744
-0.0258892 0.00542886 0.362504
0.0478904 0.0296594 0.36201
-0.00184902 0.000695377 0.361693
0.0412995 -0.0340407 0.358918
-0.022294 -0.00142342 0.36206
0.0239673 0.0345253 0.362796
-0.00184876 -1.67544e-05 0.361643
0.0222065 -0.024342 0.359843
0.0434953 0.0224057 0.361718
0.0186991 -0.0125287 0.360505
0.0294401 0.0157215 0.36169
0.00143064 0.00748232 0.361917
0.0416674 -0.0336656 0.358884
0.00114932 0.00682528 0.36187
-0.00159981 0.004544 0.361818
0.0236644 0.0235292 0.362187
0.0322538 0.0392596 0.362782
0.0340455 0.0414284 0.36285
0.00546558 0.015368 0.362191
0.00171181 0.00804432 0.361897
0.0438943 0.0228392 0.36166
0.0427822 -0.0323638 0.358879
0.03038 0.0183464 0.361727
-0.0168771 0.0127534 0.362534
0.0361659 0.0414483 0.362749
0.00386905 0.0123604 0.362021
0.0315068 0.0411449 0.362835
-0.0138768 0.0167025 0.362651
0.0434395 -0.0149231 0.359703
0.0281166 -0.0329459 0.359144
0.0351647 0.0415123 0.362761
0.0442054 0.0274556 0.361834
0.0446425 -0.0302267 0.358889
0.00488561 -0.00838344 0.360926
0.0043255 -0.00730966 0.360992
0.0414066 -0.0126923 0.359849
-0.00203801 0.00942112 0.361977
0.00201144 0.00860541 0.361839
-0.0035322 -0.00301191 0.361378
0.0479505 0.0304135 0.361873
0.0443849 0.0317168 0.362011
-0.00446791 -0.00357329 0.361356
0.044079 -0.0157571 0.3596
0.044688 0.0371401 0.362272
0.00751961 0.00935183 0.36172
0.0340279 0.0402801 0.362665
-0.0254776 -0.000297977 0.361992
0.00346175 0.0116696 0.361922
-0.0255558 0.000620851 0.362037
0.0405375 -0.0116984 0.359856
0.0236649 0.0265629 0.362195
0.00814708 -0.0145813 0.360466
0.0222965 -0.021217 0.359794
0.0332113 0.0397447 0.362636
0.0248185 0.0352956 0.362601
0.0292021 0.0375508 0.362613
0.036799 0.00883409 0.360974
0.0441321 0.0256276 0.361647
0.0447153 -0.0167757 0.359474
-0.0219641 -0.00214069 0.361774
0.0426554 -0.0193774 0.359376
0.0380327 0.0192681 0.361443
-0.0221569 -0.000141789 0.361861
0.044357 0.0306317 0.361868
0.0312969 0.0386744 0.362581
0.00469748 -0.00777384 0.360836
0.0394237 -0.0102083 0.359899
-0.0206237 0.0108705 0.36237
0.0282211 0.019702 0.361675
0.0426488 -0.0199328 0.359321
0.0280077 0.036887 0.362551
0.0421302 -0.0134308 0.359662
0.0333026 0.0413927 0.362654
0.0230511 -0.0167973 0.359936
0.0263167 0.0359783 0.36254
0.0255204 0.023042 0.361901
0.0441528 0.0265851 0.361645
-0.00152119 0.00649377 0.361687
0.0304491 0.0382016 0.362551
0.00357681 -0.00618645 0.360921
-0.00151116 0.00372908 0.361542
0.0285696 0.0371668 0.362532
0.0331326 0.0110193 0.361094
-0.00147344 0.00279205 0.361483
-0.0219185 0.00467192 0.362053
-0.0123636 0.015187 0.362348
0.0368319 0.0412975 0.362524
0.0399846 -0.0305599 0.358798
0.0469519 0.0334135 0.361882
0.0423794 -0.0284038 0.358841
0.0271893 0.0364114 0.36249
0.0477773 0.0266686 0.361508
0.0236156 0.0255996 0.362015
0.0417691 0.0213235 0.361372
0.00302282 0.0108518 0.361746
-0.00147427 0.00766498 0.361687
0.0371004 0.00945491 0.360874
0.0383699 -0.00853099 0.359924
-0.0219655 0.000607899 0.361796
0.0379793 0.0113884 0.360936
0.0355866 0.0179514 0.361321
0.0270943 0.0204027 0.361641
0.0377896 0.0110137 0.36091
0.0465482 -0.0232227 0.358962
0.0221785 -0.0258941 0.359391
0.0320656 0.0107675 0.361015
0.0420225 -0.0292986 0.358743
0.0466917 -0.0236292 0.358921
0.0236407 0.0229432 0.361824
0.0364438 -0.032534 0.358705
0.0390442 -0.0311086 0.358696
0.00552205 0.014664 0.361798
0.0389764 -0.00952174 0.359785
-0.0219185 0.00711005 0.362053
0.0246252 -0.015858 0.359777
-0.021838 0.00173218 0.361755
0.0451659 -0.0291821 0.358616
0.0442717 0.0297311 0.361631
0.0465963 0.0339984 0.361789
0.0351199 0.038832 0.362299
0.0244753 0.022092 0.361695
-0.0095136 -0.00637549 0.361039
0.0224779 -0.0176254 0.359714
0.00377143 0.0119731 0.361656
0.0223758 -0.0204432 0.359569
0.0416464 0.0350431 0.361933
-0.0251132 -0.000172825 0.361694
-0.00128617 0.00653701 0.361477
0.0441525 0.0248783 0.361345
0.0443507 0.0326084 0.361732
-0.00147382 0.0085521 0.361575
0.041544 -0.0297399 0.358622
0.0450489 -0.0174125 0.359164
0.0223762 -0.0197607 0.359575
0.0296793 0.0377084 0.362323
0.0415621 0.0211263 0.3612
0.0228306 -0.0171212 0.359693
0.0266712 -0.0147376 0.359722
0.025125 0.0216496 0.361607
0.0440318 0.0334336 0.361763
0.0425446 -0.0263316 0.358757
0.0425841 -0.0257569 0.358776
0.0241168 0.0224644 0.361656
0.0373595 -0.032027 0.358577
-0.0140492 0.0166842 0.362253
0.0378608 -0.00747229 0.35981
0.00264642 0.0100961 0.361525
0.0459416 0.0354423 0.361799
0.0463367 0.0346772 0.361748
0.025364 -0.0154812 0.359683
0.00477026 0.013471 0.361632
-0.00128631 0.00850401 0.361517
-0.0257751 0.00248192 0.361783
0.0264182 -0.0318007 0.358818
-0.00128576 0.00566132 0.361361
0.0432199 0.0340898 0.361765
0.045718 0.0303207 0.361513
0.0451035 0.0365338 0.361842
-0.0012861 0.00766007 0.361457
0.0428223 -0.0204458 0.358993
0.0321642 -0.0117547 0.359678
0.0120194 0.0207866 0.361802
0.0424637 0.0172769 0.360911
-0.0218018 0.00269991 0.361671
0.0408842 -0.0301043 0.358537
-0.00147263 0.00447485 0.361284
0.00320066 -0.00534151 0.360673
-0.0252179 0.000404759 0.361628
-0.0258436 0.00481013 0.361866
0.0262388 0.0209547 0.361468
0.0348449 -0.0333515 0.358504
-0.0252707 0.00223171 0.361714
0.0290407 -0.0134769 0.359646
0.00807346 0.0104655 0.36135
0.00128659 -0.000484199 0.360949
-0.0218041 0.00401179 0.36171
0.0025471 -0.00412757 0.360725
0.00394685 -0.00655398 0.360566
0.0426053 -0.0204703 0.358954
0.0464928 -0.0212991 0.358821
0.0292 0.014384 0.361038
0.0262902 -0.0149813 0.35961
0.0459436 -0.0200947 0.358887
0.00226686 -0.00325569 0.360754
0.040112 0.0146773 0.36078
0.0464593 -0.0260202 0.358563
-0.0156339 0.0132976 0.362012
0.0236315 0.0249953 0.361684
-0.00147198 0.00247752 0.361123
0.0363534 0.0183114 0.361038
0.0405178 0.0372894 0.3619
0.0375714 -0.00691115 0.359717
0.0441182 0.0377276 0.361832
0.042595 -0.021209 0.358868
-0.0015657 0.00367825 0.361164
0.0423021 0.0391673 0.361929
0.00100602 0.000357233 0.360921
0.041592 -0.0337903 0.358234
-0.00161169 0.000544015 0.360977
0.0428575 -0.0214125 0.358818
0.0415127 0.016429 0.360771
0.0455508 0.0360482 0.361673
0.0412304 0.0160545 0.360754
-0.00157504 -0.000432095 0.360916
-0.0019782 -0.0021262 0.36083
0.00198647 -0.00249258 0.360714
0.0435063 0.0383109 0.361809
-0.0137367 0.0143069 0.361926
-0.00372069 0.0106573 0.361504
0.0435008 0.0222357 0.360986
0.0298214 -0.0130528 0.359511
0.0291947 0.0155033 0.360971
-0.025529 0.00735569 0.361834
0.0241263 0.0316542 0.361905
-0.00502129 -0.00400351 0.360766
-0.0256325 0.00162194 0.361532
0.0076809 -0.00337804 0.360496
0.0428727 -0.0193495 0.358859
0.0395633 -0.030831 0.358348
0.0425712 0.0389686 0.361825
-0.00147131 0.00166617 0.360959
0.0465732 0.0223229 0.360884
0.0454702 0.0207036 0.360821
0.0384838 0.037018 0.361813
0.0260392 0.0211318 0.361295
0.0369787 -0.00529589 0.359691
-0.0216856 0.00962015 0.361817
0.0427342 -0.0264471 0.358476
0.0382608 -0.031571 0.35832
0.0227606 -0.0295056 0.358785
-0.00394642 -0.0033803 0.360735
0.0367316 -0.00486127 0.359703
0.00859909 -0.0149291 0.359847
0.0441472 -0.0223101 0.35864
-0.025648 0.0068542 0.36175
0.0456998 0.0322741 0.361369
0.0305601 -0.0126778 0.359437
0.0359945 -0.00327829 0.359785
0.0313978 -0.0122122 0.359435
0.0225485 -0.017887 0.359353
-0.0255795 0.00547873 0.361664
0.0193128 -0.0283218 0.358896
0.0342498 0.0402096 0.36203
-0.0208729 0.01051 0.361808
-0.00786926 -0.005575 0.360682
0.040278 0.0203282 0.360872
-0.0057301 -0.00442605 0.360688
0.00152102 0.00727853 0.361107
0.0411407 0.0353861 0.361607
0.0430013 0.0342523 0.361502
-0.0201226 0.0110407 0.361797
0.0282493 0.0145006 0.360838
0.0279499 -0.0140725 0.359393
-0.00707501 -0.00512336 0.360666
-0.0141255 0.0140396 0.361803
0.0239742 0.027679 0.361605
0.0225364 -0.0210403 0.359161
0.0239097 0.0244569 0.361439
0.0240311 0.0306005 0.361746
0.0440546 0.0187288 0.360671
0.024224 -0.0161186 0.359355
0.0188414 -0.0125923 0.359657
-0.00161048 -0.00127802 0.360704
0.0427196 -0.0270259 0.358353
0.0428398 -0.0223995 0.358583
0.0351299 0.0416146 0.362016
0.0224156 -0.0291439 0.358717
-0.00889532 -0.00613448 0.360615
0.0440271 -0.0249886 0.358419
-0.0118129 0.0153189 0.361768
-0.00263765 -0.0026788 0.360638
0.0456871 0.0319845 0.361269
0.0253255 0.0329681 0.361794
0.0429102 0.0357525 0.361524
0.024033 0.0296119 0.361653
0.022544 -0.0176973 0.359282
0.00170558 -0.00169777 0.360581
-0.0128743 0.0147248 0.361753
0.0239842 0.0238493 0.361351
0.0295063 0.0189937 0.360972
0.03924 0.0197624 0.360781
-0.0260989 0.00400945 0.361507
0.0277106 0.021309 0.361126
0.0352701 0.0402906 0.361914
0.0442787 0.0245808 0.360902
-0.0215789 -0.00226124 0.361077
0.0443365 0.0254112 0.360938
0.0309683 0.0122488 0.360578
-0.00445841 -0.00375247 0.360587
0.0404779 0.0358169 0.361543
0.0471807 0.0235925 0.360765
0.0428255 -0.018537 0.358722
0.0272802 0.0362742 0.36187
0.041779 0.034997 0.361458
0.0365329 -0.00430081 0.359581
0.0466256 0.0340451 0.36129
0.0325484 0.0391618 0.361879
0.0422842 0.0214469 0.360748
0.0411616 0.0207788 0.360736
-0.0168365 0.0125354 0.361662
0.0331496 0.0414834 0.361962
0.0225676 -0.0203279 0.359066
0.0396538 -0.0104356 0.359168
0.0242738 0.0326644 0.361717
0.00138 0.00676085 0.360936
0.0114479 0.0228299 0.361512
0.0300341 0.0129335 0.360574
0.0439753 0.0225567 0.360737
0.0439808 -0.0154432 0.358799
0.0241113 0.028658 0.361504
0.0414683 -0.0171146 0.35877
-0.0066052 -0.00487224 0.360515
0.0390747 0.0366922 0.361556
0.0359903 0.0180129 0.360677
0.0331413 0.0167987 0.360682
-0.0178651 0.0119721 0.361625
0.0422255 0.0169757 0.360474
0.0197193 -0.0286302 0.358681
-0.0147746 0.0136585 0.361636
0.0430923 0.0218442 0.360696
0.0252943 0.0353422 0.361797
0.0321331 0.0173924 0.360724
-0.0159918 0.0130024 0.361624
-0.0128635 -0.00618054 0.360576
0.022254 -0.028686 0.358608
0.0416886 0.0210956 0.360676
0.00468502 -0.0115748 0.35988
0.0382303 0.0192263 0.360659
0.0320991 0.0388584 0.361796
0.0292914 0.03734 0.361784
0.0461616 0.0216509 0.360591
0.0369834 0.0413277 0.361803
0.0419629 0.0363049 0.361429
0.0448006 -0.016738 0.358666
-0.00727639 0.0129003 0.36139
0.0243481 0.0346135 0.361753
0.0241227 0.0335795 0.361704
0.0427841 -0.0232838 0.358375
-0.00121347 0.0025993 0.360719
0.0423179 -0.0134947 0.358883
0.0442283 -0.0192397 0.358545
0.0379517 0.0373485 0.361564
0.0442153 0.023527 0.360712
-0.0120199 -0.00673919 0.360485
0.0426008 -0.0278444 0.358136
-0.00427959 0.0121472 0.36126
0.003578 0.0114853 0.361041
0.0262586 0.0356802 0.361739
0.0379457 0.0190373 0.360617
0.0410292 0.0368687 0.361451
-0.0254147 -0.000577889 0.361098
0.0446138 -0.0163661 0.358658
0.0440486 -0.0178492 0.358594
0.0372976 0.0377808 0.361579
0.0411538 -0.0122514 0.358945
0.0442275 -0.0186822 0.358538
0.0312108 0.0383705 0.36174
-0.00125205 0.00169579 0.360634
0.0076884 0.0100772 0.360848
0.0313206 0.0179201 0.360691
0.0444288 0.0286824 0.360929
0.0341366 0.0415924 0.361823
0.0371203 0.0186246 0.360584
-0.0174859 0.0121563 0.361531
0.0424398 -0.0177878 0.358603
-0.016539 -0.00518508 0.360622
-0.0112127 0.0155281 0.36155
0.0368354 0.0394168 0.361637
-0.0195453 0.0112196 0.36152
0.0397137 0.0363026 0.361407
0.0286727 -0.0137827 0.359119
-0.00111412 0.00664469 0.360853
0.0302171 0.0378043 0.3617
0.0387896 0.0381864 0.361517
-0.00896154 0.0139304 0.361401
-0.0213122 0.00653402 0.361313
0.0322624 0.0412803 0.361826
0.0234177 -0.0299081 0.358412
0.0351373 0.0176331 0.360551
0.041412 0.0396852 0.361523
0.0178976 -0.0126768 0.35941
0.0298097 0.014269 0.360495
0.0342041 0.01754 0.360559
0.0281479 0.0366831 0.361672
-0.0166027 -0.00393998 0.360653
0.0382569 -0.00820268 0.359154
-0.0188258 0.0114682 0.361488
0.00307824 0.010578 0.360928
0.0371416 0.00930924 0.360065
0.0465931 -0.0237648 0.358163
0.0425548 -0.0184031 0.358529
0.00440682 -0.00710304 0.359991
0.0035684 -0.00579887 0.360073
-0.00109684 0.00556882 0.360757
0.0443942 0.0294592 0.360902
-0.0212572 0.00984409 0.361439
-0.00119005 0.00465459 0.360706
-0.0198772 -0.00310015 0.360747
-0.0216904 0.00859437 0.361378
0.028874 0.0370756 0.361642
0.0348661 0.00128757 0.35968
0.038039 0.0386532 0.361504
0.0454483 0.0294246 0.360858
0.0224047 -0.0266687 0.358542
0.0310388 0.0192271 0.360673
-0.0214982 0.00728229 0.361294
0.0361688 0.0384122 0.361527
-0.0139775 -0.00673767 0.360404
-0.000162231 0.00147724 0.360498
-0.0011983 0.00363459 0.360631
0.00223604 0.00848713 0.360795
0.0425717 -0.0283472 0.357977
0.033821 0.0164148 0.360457
0.0311932 0.0121149 0.360299
0.0481605 0.0297412 0.360794
0.025109 0.0306211 0.361375
-0.0179733 -0.00313055 0.360666
0.0414539 0.0162192 0.36026
0.0197072 -0.0291694 0.35846
-0.00314858 -0.00300312 0.360323
0.0397993 0.0199641 0.360486
0.0478852 0.0265103 0.360629
0.0407341 -0.0117276 0.358851
-0.0161315 -0.00421905 0.360559
0.0282684 0.019818 0.360742
-0.011174 -0.00692246 0.360305
0.0225034 -0.0242605 0.358635
0.0237822 -0.0300851 0.358308
0.033716 -0.0052286 0.359337
0.0333282 0.017787 0.360514
0.0352012 -0.0332006 0.357879
0.0353829 0.038825 0.361535
-0.00952287 0.015334 0.361391
0.0340549 0.0399456 0.36162
0.0404561 -0.0113562 0.358859
-0.0252453 0.00747061 0.36135
0.00189303 0.00768186 0.360725
0.00563427 0.0144441 0.360978
-0.00745995 0.0130811 0.361213
0.0239705 -0.0287891 0.358349
0.0367232 0.0381798 0.361455
0.022488 -0.0233078 0.35866
-0.0218752 -0.00116934 0.360822
0.0481871 0.027745 0.360651
0.0444178 0.0267762 0.360688
0.0343921 -0.0336429 0.357851
0.00426197 0.0126336 0.360907
0.0450638 -0.0295612 0.357807
0.0290205 0.0193762 0.360667
0.0411174 -0.0342547 0.357658
0.0078722 0.0104469 0.360705
-0.0256012 0.00266432 0.36109
0.0467645 -0.0237576 0.358055
0.0224174 -0.0271631 0.358448
0.025395 0.0333112 0.36145
-0.0214934 0.00709354 0.361212
0.0360751 0.0398263 0.361528
0.0401574 -0.0305566 0.357853
0.0446273 0.0192054 0.360267
0.0397821 -0.0148793 0.358647
-0.0216128 0.000450415 0.360861
0.0452067 0.0225744 0.360423
0.0400212 -0.0161763 0.358571
0.025106 0.031335 0.361333
0.0476411 0.024912 0.360478
0.0342836 -0.00169237 0.359433
0.0391036 -0.0311565 0.357823
0.0333144 0.0394535 0.361544
-0.0218425 -0.000639643 0.360796
0.0248064 0.0349401 0.361514
0.0302816 0.0185856 0.360554
0.0465618 -0.0256956 0.357922
0.0328323 -0.0339367 0.357821
0.0383548 -0.0315632 0.357811
-0.01547 -0.00580379 0.360378
-0.0145368 -0.00524383 0.360384
-0.0012823 0.00101009 0.360389
0.0224855 -0.0183881 0.358842
0.0383563 -0.0151265 0.358635
-0.0141623 -0.00543007 0.360355
0.0193064 0.0303101 0.361387
0.00282748 0.00988706 0.360732
0.0454927 0.0307136 0.360787
-0.0214971 0.00952767 0.361276
-0.0250454 0.00578296 0.361167
-0.0259638 0.000731146 0.360931
0.0226922 -0.0211051 0.358682
0.00300798 -0.00461625 0.359979
-0.00614823 0.0132641 0.3611
-0.0259785 0.00484714 0.361134
0.03914 0.0379757 0.361295
-0.001282 -1.66925e-05 0.360306
0.00382454 0.011695 0.360781
0.0268631 0.035872 0.36147
0.0378739 0.0108907 0.359934
0.0264083 0.0210231 0.360715
0.00114416 0.000169921 0.360244
-0.0010135 0.00768504 0.360676
0.0421734 -0.0163563 0.358444
-0.0249786 0.000684285 0.360878
-0.0254171 0.00559541 0.361133
-0.0248337 -0.000497187 0.360809
-0.0254217 0.00690616 0.361198
0.0371186 -0.0322309 0.357747
0.0300327 0.0197811 0.360556
0.0363091 -0.032669 0.357743
0.0298799 0.0130451 0.360216
0.00486958 -0.00765708 0.359746
0.0421867 -0.0292986 0.35777
-0.0215509 0.00161217 0.360831
0.0350461 0.00389532 0.359616
-0.0215507 0.00768423 0.361128
0.0411642 -0.0300375 0.357742
0.0477851 0.0315994 0.360719
0.0386215 0.0122896 0.359951
0.00581952 0.0153119 0.36087
-0.0178058 -0.00431088 0.360425
0.0292627 -0.0134805 0.358857
0.0444805 0.0276283 0.36059
0.0427811 -0.0273883 0.357833
0.0125812 -0.016015 0.359117
-0.0257286 0.00171257 0.36091
0.0430906 -0.016909 0.358352
0.0252418 -0.0156717 0.35883
0.0281774 0.0206109 0.360603
0.00749506 0.0098817 0.360539
0.039707 0.0406016 0.361346
0.0415324 -0.0298505 0.357722
0.0444841 -0.0305827 0.357615
-0.0170588 -0.00365737 0.360421
0.0229031 -0.0174313 0.358785
0.0478114 0.0249034 0.360353
0.0436751 0.0182643 0.360109
0.0369261 0.00874289 0.359783
0.045964 0.035533 0.360924
0.00430775 -0.0113768 0.359514
0.027239 0.0206026 0.3606
0.0379196 -0.0137629 0.358603
-0.0196477 -0.00216438 0.360536
0.0174187 -0.012667 0.359132
0.0224878 -0.0249863 0.358386
0.0447909 -0.0301492 0.3576
0.0428876 -0.0234087 0.357986
0.0323182 0.0183702 0.360356
0.0235347 -0.0166503 0.35878
0.0307256 0.0379852 0.361384
0.0252012 0.0217969 0.360687
0.0432841 -0.0144984 0.358417
0.0388401 -0.0143172 0.358527
0.0365989 0.0182705 0.360231
0.038868 -0.00912355 0.358785
0.0397877 -0.010422 0.358698
0.027138 -0.0146369 0.358778
0.0435799 0.0340051 0.360866
-0.0209855 -0.00244448 0.360523
0.0463973 -0.0263763 0.357726
0.0241166 0.0236677 0.360789
-0.00100292 0.00857593 0.360605
-0.00246685 0.010011 0.360711
-0.00296564 0.011259 0.360783
0.047759 0.0323045 0.360663
0.0241828 -0.0162638 0.358745
-0.0251446 0.00154094 0.360801
0.00525632 0.013904 0.360717
0.0352141 0.0400395 0.36134
-0.018722 -0.00934326 0.360091
0.0406727 0.015273 0.359953
0.0227585 -0.0204106 0.358557
-0.001956 0.0105592 0.360709
0.0478077 0.0259281 0.360326
-0.0188332 -0.00255594 0.360436
0.0261738 -0.0151752 0.358742
0.0329682 0.0391038 0.361342
0.0339241 -0.0339164 0.357607
0.0311533 -0.0124371 0.358763
0.032097 0.0117308 0.359969
0.0348413 0.00231066 0.359424
0.0311969 0.0187117 0.360341
0.0382337 0.0115391 0.359812
0.0403865 0.036013 0.361006
0.0424258 -0.0331601 0.357442
0.0319891 -0.0120033 0.358759
0.0464543 0.0346386 0.36079
0.0371731 -0.0132973 0.35857
0.0270335 0.0215756 0.360579
0.0228568 -0.0184089 0.358642
0.0400132 -0.0350068 0.357393
0.022872 -0.0192819 0.358589
-0.0192036 -0.00337695 0.360379
0.0363394 0.0415394 0.361362
0.0324836 -0.0116622 0.358747
0.036519 -0.0139459 0.358532
-0.00016226 0.00913527 0.360561
0.0455025 0.0315128 0.360629
0.0480208 0.030658 0.360524
0.0211792 0.0355531 0.3614
0.0460582 -0.0275256 0.357611
0.0225922 -0.0290767 0.35808
0.0258653 0.0222749 0.360611
0.0273449 -0.0321192 0.357811
0.024312 0.0226672 0.360662
0.0225456 -0.0192873 0.358567
0.0415914 -0.0170888 0.35823
-0.00182908 0.00965347 0.3606
0.0260501 -0.0366935 0.357592
-0.00249291 -0.00281374 0.359974
0.0238012 -0.0178492 0.358595
0.00402977 -0.00635076 0.359638
0.0353605 -0.0132038 0.358555
0.0290866 0.020333 0.360406
0.0403042 -0.0152376 0.358334
0.0298561 -0.0325351 0.357696
0.0370985 -0.014314 0.358447
0.0454473 0.0326492 0.360638
0.0403808 0.0201926 0.360121
0.0456283 0.0360551 0.360804
0.0445818 0.0327241 0.360655
-0.00548852 0.0119438 0.360768
0.0404115 0.0148332 0.359841
-0.011572 0.0151959 0.361074
0.0311009 0.0411688 0.361395
0.0237624 -0.0287619 0.358011
-0.00146732 -0.0016017 0.35998
0.035069 -0.0123378 0.358579
0.0360504 -0.0136656 0.358488
-0.0215407 0.00852194 0.360962
0.000489955 -0.0106307 0.359473
-0.0134419 0.0141978 0.36106
0.0475965 0.0242357 0.36014
0.028993 -0.0320426 0.357715
0.0248745 0.0246464 0.360691
-0.0199514 -0.00169691 0.360398
0.0339585 -0.00531599 0.35895
0.0446387 0.031576 0.360575
-0.00096261 0.00958767 0.360517
-0.00366512 0.0108653 0.36064
0.0310766 -0.0344026 0.357526
-0.00962311 -0.00668135 0.359887
0.0440709 0.0185808 0.359913
0.0280757 -0.0141584 0.358623
0.0428954 -0.0243349 0.357756
0.0474947 0.0327611 0.360548
0.0361756 -0.0127067 0.358501
0.0378412 -0.00717117 0.358741
0.0437287 -0.0289059 0.357498
0.0244638 0.030612 0.360973
0.0303075 -0.0339115 0.357556
0.0189876 -0.0126587 0.358897
0.0260519 0.0216584 0.360476
0.0431148 0.0353311 0.360772
0.0226651 -0.0235852 0.358253
0.0300565 -0.0130822 0.358613
0.0393095 0.0367937 0.360931
0.0423389 0.0169464 0.359851
0.0341568 -0.0115798 0.35859
0.0483653 0.0288198 0.360308
0.0248942 0.0235454 0.360588
-0.0085747 0.0138969 0.360878
0.041707 0.0362451 0.360835
-0.0134931 -0.00691526 0.35993
0.0423075 0.034916 0.36075
0.045485 0.0336413 0.36061
0.0450492 0.034359 0.360656
0.0476387 0.0317261 0.360459
0.0251787 0.0225373 0.360517
0.0322604 0.00998335 0.359712
0.0429661 -0.0322229 0.357316
0.0225302 -0.0283892 0.357987
-0.00495798 0.0123775 0.360701
0.0244674 0.0315052 0.360985
-0.0163897 -0.00505286 0.360079
0.0442902 0.0336902 0.360628
0.0175978 0.026717 0.360897
0.0281572 -0.0314846 0.357691
-0.00277706 0.0105892 0.360552
0.0247274 -0.01599 0.358557
0.0452059 0.0365686 0.360748
-0.00798214 0.0142522 0.360857
0.0428147 -0.026506 0.357597
0.0128501 -0.0160022 0.358831
-0.0191377 0.00993823 0.360897
-0.00128267 0.010254 0.360495
-0.015176 -0.00486593 0.360049
0.0446509 0.0307301 0.360458
0.0371046 -0.00522087 0.358806
-0.00375455 -0.00352443 0.359847
-0.00146743 0.000729277 0.360009
0.0182072 -0.0261776 0.358175
0.0228737 -0.0344142 0.357646
0.00581427 0.0147846 0.360544
0.00767597 0.0102475 0.360265
2.44995e-05 0.00800944 0.360328
-0.0212619 0.000916917 0.360461
0.0300258 -0.0334906 0.35751
0.0330849 -0.0115322 0.358553
0.00523649 -0.00876545 0.359344
-0.00390735 0.011555 0.36059
0.0244648 0.0342745 0.361079
0.02487 0.025576 0.360625
0.0390563 0.0132113 0.359663
0.0357546 -0.0329698 0.357387
-0.00477379 0.0116813 0.360602
0.0455104 0.0204427 0.359871
0.0254628 0.0351479 0.361084
0.0245201 0.0326128 0.360973
0.035248 0.0390407 0.361047
0.0243989 0.033667 0.361026
0.0243927 0.0276491 0.360719
0.0466956 -0.0248339 0.357528
0.0437842 -0.0178172 0.357951
-0.00761653 -0.00568741 0.359769
0.0321753 -0.034204 0.357387
0.0380857 0.0383382 0.360931
0.0147054 -0.0153481 0.358749
0.0290075 -0.0330741 0.357513
0.0412699 0.0357163 0.360722
-0.0201898 0.000516671 0.360369
0.00244643 -0.00309072 0.359655
0.0200943 -0.0292023 0.357915
0.0338489 -0.00596379 0.358773
0.037375 0.037957 0.360919
0.0314844 0.038214 0.36107
0.024456 0.0296272 0.360797
-0.0187758 0.0112528 0.360869
0.0454449 -0.0178141 0.357889
0.0243463 0.0265829 0.360638
0.0305723 -0.01283 0.358489
0.0445612 0.0265827 0.360163
0.0269814 -0.0307717 0.357659
0.000768906 -0.0106254 0.359295
0.029244 -0.00902862 0.358709
0.0381812 0.0376797 0.360873
0.0428624 -0.0254706 0.357554
0.0145133 -0.0180349 0.358593
0.0242778 0.0255586 0.360581
0.0437275 -0.0263125 0.357488
0.0431233 -0.0193879 0.357853
-0.0146925 0.0133747 0.36087
0.0437137 -0.0285257 0.357375
0.0120118 -0.0154424 0.35878
0.0248693 0.0266028 0.360614
0.0225821 -0.0274569 0.35792
-0.014596 -0.0061419 0.359871
-0.00993593 0.015338 0.360853
0.00222907 -0.00246983 0.359664
-0.0249526 0.00345234 0.360599
0.0469836 0.0335924 0.360448
0.0413876 0.0160069 0.359684
0.0242842 0.0247287 0.360527
0.042547 0.0390479 0.360826
0.03119 -0.0333423 0.357411
-0.00668932 0.0128503 0.360644
0.0285085 0.0198848 0.360178
0.0402026 0.0366108 0.360754
0.046688 -0.025015 0.357469
0.0283587 -0.032703 0.357506
0.0441348 0.0344953 0.360552
0.0404262 0.0105027 0.359419
0.04593 -0.0279672 0.357335
-0.0214973 -0.00194494 0.360233
0.0362494 0.0387851 0.360952
0.037155 0.0385871 0.360921
0.0455558 -0.0287051 0.357303
0.0251645 -0.0296659 0.35773
0.0442665 0.0376854 0.360706
-0.00577076 -0.00471235 0.359716
0.0427897 -0.0281566 0.357389
-0.0107757 0.0153944 0.360854
-0.00178081 -0.00241578 0.359736
-0.0122754 -0.00672566 0.359762
0.0298493 0.0143365 0.359847
-0.0088177 -0.00633484 0.3597
0.0262874 0.0353051 0.360991
0.0255904 -0.0309552 0.357639
0.0248705 0.0276315 0.360632
0.0283466 0.0363974 0.360996
0.0421543 0.0355667 0.36063
0.023075 -0.0293454 0.357776
-0.00778024 0.0136649 0.360683
0.0248988 0.032632 0.360883
0.0437658 -0.0242797 0.357548
0.0431759 0.0346469 0.360557
0.0430692 0.038688 0.360763
0.0390937 0.0374679 0.360793
-0.0208567 0.00661153 0.360625
0.0397682 0.0373599 0.360769
-0.0204723 0.0103875 0.360805
0.0245116 0.0286042 0.360678
0.0322633 0.038443 0.360996
0.0328231 -0.0057773 0.358734
0.0410625 0.036417 0.360685
0.0445393 0.0257223 0.360058
0.046623 0.0221642 0.359826
0.02957 0.0371955 0.360988
-0.0247056 0.00768673 0.360757
-0.00578796 0.012542 0.36056
-0.0166925 0.0122356 0.360799
0.00858223 -0.00876049 0.359141
-0.0195611 -0.0030478 0.360086
-0.00690941 0.0134557 0.360628
0.0191533 0.0298916 0.360853
0.0262993 -0.0303671 0.357623
0.02248 -0.0195029 0.358261
0.0258237 0.0340083 0.3609
0.0272123 0.0355509 0.360945
0.0260797 -0.0312275 0.357574
0.0314737 0.0180076 0.359949
0.044968 0.019511 0.359709
-0.000161928 0.00100845 0.359824
-0.0169278 -0.0106351 0.359623
0.0248417 0.0316488 0.360794
0.0446089 0.0274988 0.360118
0.0360814 0.0394054 0.360921
0.0225756 -0.0254185 0.357938
0.0289651 0.0359907 0.360907
0.0302644 0.0373532 0.360945
0.0333276 0.0169248 0.359834
0.0319076 0.0183622 0.359936
-0.00480609 -0.00426152 0.359645
-0.0208381 0.00766245 0.360626
-0.0152476 -0.0111913 0.359536
0.0248431 0.0306794 0.360727
0.0115396 -0.0184038 0.358543
0.0334014 0.00971253 0.359458
0.0430795 -0.0204156 0.357699
-0.00685157 -0.0053006 0.359635
0.0248727 0.0295957 0.360665
0.044619 0.0295575 0.3602
0.0328038 0.0380595 0.360906
0.0307939 0.0191909 0.359994
0.0376871 -0.0137459 0.358159
0.0302095 0.0132126 0.359697
0.0269972 0.0349676 0.360878
0.0311888 0.0375832 0.360912
0.0178671 0.0268253 0.360676
-0.0200017 0.00857677 0.360633
0.0450113 -0.00359142 0.358494
0.0270615 -0.0314751 0.357495
0.0292135 0.0365935 0.360904
0.0321052 0.0378468 0.360899
-0.0140223 -0.00572394 0.359761
0.0342484 0.0395314 0.360932
0.0446221 0.0303993 0.360225
0.0341366 0.0388438 0.360898
0.0352641 0.0173935 0.359781
-0.0128817 -0.00643858 0.359695
-0.0127691 0.0143725 0.360749
0.034149 0.0172829 0.3598
0.0316834 0.0104122 0.359507
0.043242 0.0177734 0.359611
0.0437311 -0.0231664 0.357517
0.0430216 -0.0183117 0.357779
0.0322431 0.0177703 0.359865
-0.0253717 0.0035313 0.360488
0.0446094 0.0285251 0.360122
0.041326 0.0398208 0.360773
0.0392341 0.0193804 0.359782
0.0387516 0.0122718 0.359428
0.0308685 0.036996 0.360866
0.0462364 0.0215055 0.359719
0.0416588 -0.0298083 0.357216
0.0330776 0.0174419 0.359818
0.0251115 -0.0305165 0.357563
0.0262473 0.0215756 0.360183
0.0303392 0.018831 0.359947
0.0445826 0.0245929 0.359906
0.0281276 0.0204389 0.360078
0.0269428 0.0213314 0.360151
0.0280718 0.0357677 0.360856
0.0425167 0.0212761 0.359778
-0.0177203 -0.00410126 0.359895
0.0442937 0.0225263 0.359796
0.0272309 0.0209047 0.36011
0.0292354 0.0196909 0.36
0.0445102 -0.0160501 0.357826
0.0195854 0.0305704 0.360778
0.0225404 -0.0244278 0.35791
0.0301596 0.0193611 0.359957
-0.0208193 0.00858872 0.360599
0.0351593 0.0396401 0.360868
0.0311299 0.0185795 0.359891
-0.0248293 0.00970063 0.360747
-0.00888228 0.0145167 0.360618
0.033183 0.0386635 0.36086
0.0373223 0.0183886 0.359733
0.0336736 0.0392405 0.360878
0.0412799 0.0204678 0.359745
0.0466862 0.0341397 0.360313
0.0416307 -0.0338564 0.356975
0.0250835 0.0336693 0.360794
-0.0137771 0.01359 0.360681
0.0300961 0.0367838 0.360834
0.0254927 0.0219065 0.360185
0.043113 -0.0213178 0.357575
-0.0118063 -0.00733213 0.359568
0.0430835 -0.0221943 0.357522
0.025209 0.0345272 0.360823
0.0371996 0.0413513 0.360887
-0.0207523 0.00956893 0.360627
-0.0179224 0.0108448 0.360625
0.0445399 0.0235924 0.359812
-0.0158069 0.0125088 0.360657
0.0393207 0.0408212 0.360805
-0.0127537 -0.00711981 0.359586
-0.0239912 0.0113837 0.360787
0.0437272 -0.0224235 0.357485
-0.0172184 -0.00374487 0.359857
0.0437917 -0.0194224 0.357633
0.0261475 0.0346779 0.360794
0.0457602 0.0209416 0.359637
0.0449411 0.0236531 0.359791
0.0481197 0.0266408 0.359868
0.0474484 0.0236488 0.359724
0.0251296 0.022435 0.360182
-0.0189935 -0.00265033 0.359936
0.00898502 0.0188377 0.360373
0.0432998 0.021514 0.359704
0.0385004 -0.0150362 0.357959
0.0243121 -0.0300987 0.357525
-0.00500343 -0.00513759 0.359478
-0.0137832 -0.00629834 0.359621
-0.012094 0.0138764 0.360606
0.0113099 -0.0143675 0.358623
-0.0215938 -0.00697426 0.359768
0.0437586 -0.0316384 0.356986
-0.0098512 0.0147724 0.360597
-0.0148572 0.0127272 0.36061
-0.020015 0.00670462 0.360422
-0.0177471 0.0114631 0.36061
-0.0188413 0.0106303 0.360592
-0.0178912 -0.00350658 0.35985
-0.00270701 -0.00321353 0.359508
-0.0118066 0.0145606 0.360624
-0.0187256 -0.0032938 0.359877
-0.00649262 -0.00597511 0.359454
0.0248596 0.0285529 0.360474
